0.000000 0.000000 0.000000
-0.223898 -0.033759 0.974028
-0.378947 -0.009978 1.961648
-0.482678 0.006329 2.956120
-0.583235 -0.021791 3.950654
-0.718851 -0.020662 4.941415
-0.877625 -0.051785 5.928239
-0.987087 -0.038468 6.922141
-1.247963 -0.023268 7.887393
-1.509007 -0.073466 8.851414
-1.649556 -0.080275 9.841465
-1.955218 -0.118665 10.792830
-2.309681 -0.137355 11.727714
-2.622709 -0.127733 12.677409
-2.999612 -0.180811 13.602140
-3.414376 -0.204031 14.511772
-3.763936 -0.160080 15.447655
-4.252777 -0.177201 16.319859
-4.783972 -0.175031 17.167106
-5.273407 -0.201225 18.038753
-5.799295 -0.166114 18.888582
-6.403887 -0.181365 19.684971
-6.997701 -0.230417 20.488076
-7.673945 -0.200357 21.224141
-8.437911 -0.196421 21.869385
-9.191571 -0.209019 22.526529
-9.857330 -0.230889 23.272375
-10.642942 -0.258862 23.890463
-11.491615 -0.264352 24.419351
-12.398973 -0.273822 24.839605
-13.315936 -0.241835 25.237292
-14.222055 -0.229522 25.660135
-15.165811 -0.227264 25.990769
-16.129456 -0.226079 26.257952
-17.104554 -0.213418 26.479365
-18.083678 -0.197785 26.682027
-19.066533 -0.194677 26.866385
-20.058549 -0.205722 26.992007
-21.057660 -0.191629 27.031741
-22.057542 -0.180660 27.042517
-23.057206 -0.157718 27.030457
-24.053870 -0.137526 26.951387
-25.052676 -0.132519 26.902784
-26.050042 -0.123781 26.830778
-27.044182 -0.106927 26.724000
-28.038491 -0.101683 26.617596
-29.032059 -0.093588 26.504646
-30.025763 -0.105620 26.393259
-31.019904 -0.092991 26.285905
-32.011852 -0.082793 26.159673
-33.003726 -0.070577 26.033032
-33.997788 -0.055263 25.925308
-34.994367 -0.046731 25.843096
-35.985994 -0.038354 25.714237
-36.980549 -0.021029 25.611476
-37.974925 -0.000299 25.507612
-38.970448 0.037033 25.420773
-39.962077 0.054775 25.292884
-40.955098 0.073882 25.176503
-41.950423 0.100432 25.083640
-42.944610 0.120231 24.977808
-43.938799 0.137619 24.871570
-44.936163 0.143258 24.799235
-45.932729 0.166730 24.719833
-46.929093 0.194267 24.639200
-47.923602 0.211440 24.535965
-48.922869 0.225788 24.500497
-49.919185 0.223426 24.414773
-50.914174 0.225977 24.314819
-51.901281 0.213743 24.155223
-52.895006 0.226363 24.044091
-53.891857 0.234338 23.965195
-54.888264 0.256868 23.883551
-55.882780 0.274008 23.780375
-56.877263 0.293300 23.677269
-57.872258 0.307132 23.578310
-58.865632 0.322747 23.464447
-59.858626 0.348560 23.349132
-60.854384 0.358874 23.257711
-61.853658 0.344016 23.222614
-62.837195 0.366114 23.043264
-63.829147 0.375407 22.916988
-64.825182 0.386673 22.828744
-65.818228 0.409195 22.713195
-66.811486 0.421228 22.597893
-67.807033 0.444734 22.506607
-68.791221 0.485308 22.334190
-69.785547 0.481888 22.227871
-70.785144 0.476656 22.199966
-71.782780 0.496259 22.134092
-72.781990 0.510452 22.096976
-73.775362 0.525508 21.983029
-74.771935 0.515603 21.900897
-75.767440 0.514428 21.806200
-76.767340 0.503168 21.797642
-77.761763 0.495546 21.692454
-78.757075 0.483290 21.596515
-79.752178 0.500054 21.499102
-80.745880 0.515143 21.388067
-81.738877 0.509967 21.270043
-82.730685 0.510347 21.142309
-83.725376 0.513164 21.039434
-84.715201 0.521002 20.897365
-85.711991 0.519250 20.817313
-86.704766 0.529043 20.697729
-87.701659 0.540857 20.619847
-88.692732 0.560940 20.488046
-89.685984 0.562970 20.372087
-90.678256 0.593194 20.251745
-91.674713 0.585165 20.168023
-92.669861 0.596063 20.070243
-93.664873 0.607095 19.971100
-94.655104 0.618464 19.832126
-95.648768 0.618920 19.719737
-96.642959 0.615017 19.612174
-97.637640 0.629005 19.510131
-98.635837 0.645957 19.452554
-99.633697 0.661135 19.388950
-100.632046 0.670936 19.332354
-101.631795 0.663556 19.311168
-102.630389 0.633275 19.267670
-103.629574 0.593389 19.261447
-104.628550 0.625967 19.230052
-105.623545 0.630447 19.329873
-106.620990 0.656343 19.396457
-107.617713 0.633788 19.474139
-108.603918 0.607866 19.637627
-109.558747 0.594271 19.934469
-110.497442 0.606329 20.279007
-111.377057 0.616288 20.754589
-112.276846 0.630998 21.190668
-113.134024 0.649265 21.705364
-113.963316 0.650677 22.264178
-114.820254 0.666921 22.779341
-115.584325 0.684519 23.424232
-116.300710 0.698933 24.121789
-116.997661 0.636415 24.836177
-117.690953 0.652736 25.556649
-118.318184 0.658742 26.335460
-118.916141 0.692492 27.136277
-119.412296 0.670895 28.004242
-119.889458 0.682746 28.882977
-120.330809 0.686976 29.780302
-120.669794 0.643094 30.720070
-121.051881 0.610441 31.643619
-121.430924 0.601017 32.568950
-121.747121 0.575236 33.517294
-122.038253 0.535974 34.473171
-122.343166 0.525130 35.425489
-122.576762 0.522275 36.397818
-122.806187 0.506851 37.371023
-123.052459 0.494477 38.340144
-123.292625 0.473147 39.310642
-123.414658 0.457241 40.303040
-123.604455 0.438400 41.284683
-123.776863 0.414817 42.269426
-123.951308 0.394754 43.253889
-124.117012 0.377837 44.239919
-124.273928 0.365789 45.227458
-124.413577 0.347517 46.217490
